# .PCD v.7 - Exported by BlenSor
VERSION .7
FIELDS x y z rgb
SIZE 4 4 4 4
TYPE F F F F
COUNT 1 1 1 1
WIDTH 930
HEIGHT 1
VIEWPOINT 0 0 0 1 0 0 0
POINTS 930
DATA ascii
7.799345 -0.430782 -10.256554 1.880790849211783e-38
7.445436 -0.809582 -9.600450 1.880790849211783e-38
9.222436 1.076030 -12.866431 1.880790849211783e-38
8.632637 0.496160 -11.862067 1.880790849211783e-38
7.728163 -0.430768 -10.256577 1.880790849211783e-38
7.377087 -0.809538 -9.600529 1.880790849211783e-38
9.139637 1.076111 -12.866574 1.880790849211783e-38
8.554606 0.496178 -11.862097 1.880790849211783e-38
7.657454 -0.430754 -10.256603 1.880790849211783e-38
7.309201 -0.809494 -9.600605 1.880790849211783e-38
9.057321 1.076180 -12.866690 1.880790849211783e-38
8.477057 0.496194 -11.862124 1.880790849211783e-38
7.587195 -0.430745 -10.256618 1.880790849211783e-38
7.241765 -0.809449 -9.600682 1.880790849211783e-38
8.975511 1.076256 -12.866822 1.880790849211783e-38
8.399987 0.496209 -11.862150 1.880790849211783e-38
7.517398 -0.430731 -10.256642 1.880790849211783e-38
7.174767 -0.809408 -9.600752 1.880790849211783e-38
8.894189 1.076329 -12.866949 1.880790849211783e-38
8.323390 0.496224 -11.862176 1.880790849211783e-38
7.448043 -0.430721 -10.256660 1.880790849211783e-38
7.108218 -0.809362 -9.600832 1.880790849211783e-38
8.813351 1.076408 -12.867086 1.880790849211783e-38
8.247251 0.496237 -11.862199 1.880790849211783e-38
7.379132 -0.430705 -10.256685 1.880790849211783e-38
7.042092 -0.809321 -9.600904 1.880790849211783e-38
8.732984 1.076477 -12.867208 1.880790849211783e-38
8.171583 0.496257 -11.862234 1.880790849211783e-38
7.310655 -0.430695 -10.256703 1.880790849211783e-38
6.976396 -0.809279 -9.600976 1.880790849211783e-38
8.653078 1.076551 -12.867335 1.880790849211783e-38
8.096351 0.496269 -11.862257 1.880790849211783e-38
7.242596 -0.430685 -10.256721 1.880790849211783e-38
6.911111 -0.809237 -9.601048 1.880790849211783e-38
8.573630 1.076615 -12.867446 1.880790849211783e-38
8.021563 0.496280 -11.862273 1.880790849211783e-38
7.174965 -0.430674 -10.256740 1.880790849211783e-38
6.846245 -0.809194 -9.601122 1.880790849211783e-38
8.494635 1.076684 -12.867564 1.880790849211783e-38
7.947223 0.496298 -11.862306 1.880790849211783e-38
7.107746 -0.430662 -10.256761 1.880790849211783e-38
6.781778 -0.809157 -9.601188 1.880790849211783e-38
8.416096 1.076761 -12.867698 1.880790849211783e-38
7.873306 0.496315 -11.862334 1.880790849211783e-38
7.040932 -0.430651 -10.256780 1.880790849211783e-38
6.717713 -0.809114 -9.601261 1.880790849211783e-38
8.337987 1.076826 -12.867810 1.880790849211783e-38
7.799817 0.496331 -11.862362 1.880790849211783e-38
6.974522 -0.430639 -10.256800 1.880790849211783e-38
6.654045 -0.809071 -9.601336 1.880790849211783e-38
8.260315 1.076898 -12.867934 1.880790849211783e-38
7.726738 0.496340 -11.862376 1.880790849211783e-38
6.908507 -0.430627 -10.256821 1.880790849211783e-38
6.590752 -0.809037 -9.601395 1.880790849211783e-38
8.183064 1.076959 -12.868042 1.880790849211783e-38
7.654083 0.496362 -11.862415 1.880790849211783e-38
6.842881 -0.430615 -10.256843 1.880790849211783e-38
6.527851 -0.808994 -9.601470 1.880790849211783e-38
8.106245 1.077036 -12.868176 1.880790849211783e-38
7.581819 0.496369 -11.862428 1.880790849211783e-38
6.777638 -0.430602 -10.256864 1.880790849211783e-38
6.465318 -0.808955 -9.601537 1.880790849211783e-38
8.029829 1.077101 -12.868287 1.880790849211783e-38
7.509966 0.496389 -11.862463 1.880790849211783e-38
6.712766 -0.430595 -10.256877 1.880790849211783e-38
6.403156 -0.808917 -9.601604 1.880790849211783e-38
7.953815 1.077165 -12.868396 1.880790849211783e-38
7.438485 0.496395 -11.862472 1.880790849211783e-38
6.648268 -0.430582 -10.256899 1.880790849211783e-38
6.341353 -0.808878 -9.601671 1.880790849211783e-38
7.878207 1.077227 -12.868505 1.880790849211783e-38
7.367414 0.496414 -11.862505 1.880790849211783e-38
6.584131 -0.430574 -10.256910 1.880790849211783e-38
6.279907 -0.808843 -9.601730 1.880790849211783e-38
7.802991 1.077287 -12.868610 1.880790849211783e-38
7.296713 0.496426 -11.862524 1.880790849211783e-38
6.520362 -0.430561 -10.256934 1.880790849211783e-38
6.218818 -0.808805 -9.601799 1.880790849211783e-38
7.728173 1.077354 -12.868726 1.880790849211783e-38
7.226397 0.496444 -11.862557 1.880790849211783e-38
6.456941 -0.430553 -10.256948 1.880790849211783e-38
6.158073 -0.808765 -9.601865 1.880790849211783e-38
7.653742 1.077420 -12.868837 1.880790849211783e-38
7.156446 0.496455 -11.862576 1.880790849211783e-38
6.393880 -0.430540 -10.256973 1.880790849211783e-38
6.097671 -0.808731 -9.601925 1.880790849211783e-38
7.579681 1.077483 -12.868947 1.880790849211783e-38
7.086852 0.496464 -11.862592 1.880790849211783e-38
6.331150 -0.430531 -10.256987 1.880790849211783e-38
6.037600 -0.808697 -9.601983 1.880790849211783e-38
7.505996 1.077545 -12.869056 1.880790849211783e-38
7.017627 0.496481 -11.862622 1.880790849211783e-38
6.268762 -0.430523 -10.257001 1.880790849211783e-38
5.977868 -0.808658 -9.602051 1.880790849211783e-38
7.432679 1.077605 -12.869163 1.880790849211783e-38
6.948749 0.496490 -11.862638 1.880790849211783e-38
6.206708 -0.430515 -10.257015 1.880790849211783e-38
5.918455 -0.808624 -9.602108 1.880790849211783e-38
7.359717 1.077664 -12.869261 1.880790849211783e-38
6.880225 0.496505 -11.862663 1.880790849211783e-38
6.144987 -0.430501 -10.257041 1.880790849211783e-38
5.859365 -0.808591 -9.602168 1.880790849211783e-38
7.287113 1.077721 -12.869361 1.880790849211783e-38
6.812044 0.496521 -11.862690 1.880790849211783e-38
6.083581 -0.430492 -10.257054 1.880790849211783e-38
5.800588 -0.808557 -9.602227 1.880790849211783e-38
7.214869 1.077785 -12.869469 1.880790849211783e-38
6.744204 0.496535 -11.862716 1.880790849211783e-38
6.022501 -0.430483 -10.257070 1.880790849211783e-38
5.742131 -0.808518 -9.602292 1.880790849211783e-38
7.142965 1.077847 -12.869577 1.880790849211783e-38
6.676685 0.496542 -11.862728 1.880790849211783e-38
5.961726 -0.430475 -10.257084 1.880790849211783e-38
5.683971 -0.808485 -9.602350 1.880790849211783e-38
7.071399 1.077900 -12.869669 1.880790849211783e-38
6.609503 0.496556 -11.862753 1.880790849211783e-38
5.901270 -0.430461 -10.257108 1.880790849211783e-38
5.626118 -0.808452 -9.602408 1.880790849211783e-38
7.000175 1.077960 -12.869775 1.880790849211783e-38
6.542646 0.496570 -11.862776 1.880790849211783e-38
5.841109 -0.430457 -10.257115 1.880790849211783e-38
5.568560 -0.808419 -9.602465 1.880790849211783e-38
6.929280 1.078018 -12.869873 1.880790849211783e-38
6.476106 0.496583 -11.862799 1.880790849211783e-38
5.781252 -0.430448 -10.257130 1.880790849211783e-38
5.511294 -0.808386 -9.602521 1.880790849211783e-38
6.858711 1.078075 -12.869973 1.880790849211783e-38
6.409879 0.496595 -11.862820 1.880790849211783e-38
5.721695 -0.430434 -10.257156 1.880790849211783e-38
5.454316 -0.808354 -9.602577 1.880790849211783e-38
6.788465 1.078131 -12.870072 1.880790849211783e-38
6.343957 0.496601 -11.862830 1.880790849211783e-38
5.662420 -0.430431 -10.257161 1.880790849211783e-38
5.397624 -0.808322 -9.602633 1.880790849211783e-38
6.718532 1.078186 -12.870164 1.880790849211783e-38
6.278351 0.496620 -11.862863 1.880790849211783e-38
5.603439 -0.430417 -10.257185 1.880790849211783e-38
5.341210 -0.808290 -9.602688 1.880790849211783e-38
6.648911 1.078240 -12.870259 1.880790849211783e-38
6.213036 0.496631 -11.862883 1.880790849211783e-38
5.544735 -0.430408 -10.257200 1.880790849211783e-38
5.285069 -0.808259 -9.602743 1.880790849211783e-38
6.579596 1.078292 -12.870348 1.880790849211783e-38
6.148018 0.496643 -11.862903 1.880790849211783e-38
5.486310 -0.430400 -10.257215 1.880790849211783e-38
5.229203 -0.808228 -9.602798 1.880790849211783e-38
6.510583 1.078344 -12.870439 1.880790849211783e-38
6.083289 0.496654 -11.862921 1.880790849211783e-38
5.428154 -0.430391 -10.257230 1.880790849211783e-38
5.173598 -0.808197 -9.602850 1.880790849211783e-38
6.441877 1.078402 -12.870542 1.880790849211783e-38
6.018849 0.496665 -11.862939 1.880790849211783e-38
5.370273 -0.430383 -10.257245 1.880790849211783e-38
5.118259 -0.808167 -9.602902 1.880790849211783e-38
6.373455 1.078451 -12.870624 1.880790849211783e-38
5.954691 0.496675 -11.862959 1.880790849211783e-38
5.312650 -0.430380 -10.257251 1.880790849211783e-38
5.063174 -0.808141 -9.602947 1.880790849211783e-38
6.305326 1.078500 -12.870710 1.880790849211783e-38
5.890812 0.496686 -11.862977 1.880790849211783e-38
5.255299 -0.430366 -10.257274 1.880790849211783e-38
5.008353 -0.808107 -9.603006 1.880790849211783e-38
6.237485 1.078556 -12.870806 1.880790849211783e-38
5.827207 0.496696 -11.862993 1.880790849211783e-38
5.198198 -0.430358 -10.257288 1.880790849211783e-38
4.953778 -0.808078 -9.603057 1.880790849211783e-38
6.169926 1.078610 -12.870900 1.880790849211783e-38
5.763873 0.496706 -11.863013 1.880790849211783e-38
5.141353 -0.430350 -10.257300 1.880790849211783e-38
4.899448 -0.808050 -9.603104 1.880790849211783e-38
6.102636 1.078656 -12.870980 1.880790849211783e-38
5.700801 0.496716 -11.863027 1.880790849211783e-38
5.084751 -0.430348 -10.257306 1.880790849211783e-38
4.845363 -0.808022 -9.603153 1.880790849211783e-38
6.035627 1.078709 -12.871073 1.880790849211783e-38
5.637993 0.496725 -11.863045 1.880790849211783e-38
5.028403 -0.430335 -10.257328 1.880790849211783e-38
4.791519 -0.807990 -9.603207 1.880790849211783e-38
5.968878 1.078754 -12.871150 1.880790849211783e-38
5.575449 0.496742 -11.863072 1.880790849211783e-38
4.972293 -0.430327 -10.257340 1.880790849211783e-38
4.737910 -0.807963 -9.603255 1.880790849211783e-38
5.902394 1.078805 -12.871236 1.880790849211783e-38
5.513149 0.496751 -11.863089 1.880790849211783e-38
4.916422 -0.430315 -10.257362 1.880790849211783e-38
4.684526 -0.807936 -9.603301 1.880790849211783e-38
5.836175 1.078855 -12.871323 1.880790849211783e-38
5.451102 0.496760 -11.863104 1.880790849211783e-38
4.860779 -0.430313 -10.257365 1.880790849211783e-38
4.631375 -0.807911 -9.603346 1.880790849211783e-38
5.770208 1.078897 -12.871397 1.880790849211783e-38
5.389304 0.496769 -11.863121 1.880790849211783e-38
4.805378 -0.430301 -10.257387 1.880790849211783e-38
4.578452 -0.807881 -9.603396 1.880790849211783e-38
5.704499 1.078947 -12.871482 1.880790849211783e-38
5.327747 0.496778 -11.863135 1.880790849211783e-38
4.750196 -0.430294 -10.257399 1.880790849211783e-38
4.525746 -0.807856 -9.603439 1.880790849211783e-38
5.639040 1.078996 -12.871568 1.880790849211783e-38
5.266429 0.496787 -11.863152 1.880790849211783e-38
4.695240 -0.430287 -10.257410 1.880790849211783e-38
4.473263 -0.807828 -9.603489 1.880790849211783e-38
5.573823 1.079044 -12.871652 1.880790849211783e-38
5.205348 0.496796 -11.863168 1.880790849211783e-38
4.640504 -0.430281 -10.257421 1.880790849211783e-38
4.420989 -0.807805 -9.603529 1.880790849211783e-38
5.508843 1.079084 -12.871721 1.880790849211783e-38
5.144503 0.496812 -11.863196 1.880790849211783e-38
4.585985 -0.430275 -10.257432 1.880790849211783e-38
4.368929 -0.807778 -9.603576 1.880790849211783e-38
5.444105 1.079131 -12.871801 1.880790849211783e-38
5.083877 0.496820 -11.863208 1.880790849211783e-38
4.531681 -0.430264 -10.257450 1.880790849211783e-38
4.317077 -0.807751 -9.603621 1.880790849211783e-38
5.379601 1.079177 -12.871881 1.880790849211783e-38
5.023479 0.496829 -11.863225 1.880790849211783e-38
4.477584 -0.430258 -10.257460 1.880790849211783e-38
4.265430 -0.807726 -9.603667 1.880790849211783e-38
5.315325 1.079223 -12.871961 1.880790849211783e-38
4.963297 0.496838 -11.863238 1.880790849211783e-38
4.423690 -0.430253 -10.257468 1.880790849211783e-38
4.213976 -0.807705 -9.603702 1.880790849211783e-38
5.251273 1.079261 -12.872026 1.880790849211783e-38
4.903338 0.496846 -11.863254 1.880790849211783e-38
4.370004 -0.430248 -10.257477 1.880790849211783e-38
4.162728 -0.807681 -9.603744 1.880790849211783e-38
5.187449 1.079306 -12.872105 1.880790849211783e-38
4.843592 0.496855 -11.863269 1.880790849211783e-38
4.316521 -0.430238 -10.257494 1.880790849211783e-38
4.111677 -0.807653 -9.603793 1.880790849211783e-38
5.123841 1.079343 -12.872168 1.880790849211783e-38
4.784058 0.496864 -11.863284 1.880790849211783e-38
4.263232 -0.430234 -10.257503 1.880790849211783e-38
4.060814 -0.807630 -9.603831 1.880790849211783e-38
5.060453 1.079387 -12.872246 1.880790849211783e-38
4.724730 0.496873 -11.863300 1.880790849211783e-38
4.210139 -0.430224 -10.257518 1.880790849211783e-38
4.010142 -0.807603 -9.603876 1.880790849211783e-38
4.997279 1.079431 -12.872322 1.880790849211783e-38
4.665608 0.496881 -11.863315 1.880790849211783e-38
4.157234 -0.430220 -10.257524 1.880790849211783e-38
3.959653 -0.807582 -9.603914 1.880790849211783e-38
4.934315 1.079475 -12.872398 1.880790849211783e-38
4.606687 0.496890 -11.863330 1.880790849211783e-38
4.104520 -0.430212 -10.257541 1.880790849211783e-38
3.909349 -0.807558 -9.603957 1.880790849211783e-38
4.871552 1.079511 -12.872460 1.880790849211783e-38
4.547963 0.496899 -11.863347 1.880790849211783e-38
4.051990 -0.430204 -10.257554 1.880790849211783e-38
3.859225 -0.807534 -9.603998 1.880790849211783e-38
4.808991 1.079546 -12.872521 1.880790849211783e-38
4.489433 0.496908 -11.863360 1.880790849211783e-38
3.999638 -0.430201 -10.257558 1.880790849211783e-38
3.809275 -0.807515 -9.604033 1.880790849211783e-38
4.746635 1.079589 -12.872595 1.880790849211783e-38
4.431096 0.496917 -11.863379 1.880790849211783e-38
3.947469 -0.430193 -10.257574 1.880790849211783e-38
3.759499 -0.807493 -9.604069 1.880790849211783e-38
4.684475 1.079632 -12.872670 1.880790849211783e-38
4.372942 0.496920 -11.863382 1.880790849211783e-38
3.895474 -0.430186 -10.257586 1.880790849211783e-38
3.709895 -0.807472 -9.604106 1.880790849211783e-38
4.622500 1.079667 -12.872731 1.880790849211783e-38
4.314973 0.496929 -11.863395 1.880790849211783e-38
3.843649 -0.430179 -10.257596 1.880790849211783e-38
3.660456 -0.807451 -9.604143 1.880790849211783e-38
4.560719 1.079702 -12.872789 1.880790849211783e-38
4.257196 0.496945 -11.863424 1.880790849211783e-38
3.791997 -0.430173 -10.257607 1.880790849211783e-38
3.611188 -0.807427 -9.604183 1.880790849211783e-38
4.499132 1.079744 -12.872864 1.880790849211783e-38
4.199590 0.496948 -11.863429 1.880790849211783e-38
3.740510 -0.430171 -10.257609 1.880790849211783e-38
3.562079 -0.807409 -9.604215 1.880790849211783e-38
4.437722 1.079778 -12.872923 1.880790849211783e-38
4.142165 0.496958 -11.863446 1.880790849211783e-38
3.689193 -0.430161 -10.257628 1.880790849211783e-38
3.513132 -0.807387 -9.604253 1.880790849211783e-38
4.376493 1.079813 -12.872984 1.880790849211783e-38
4.084908 0.496961 -11.863454 1.880790849211783e-38
3.638031 -0.430160 -10.257629 1.880790849211783e-38
3.464342 -0.807366 -9.604289 1.880790849211783e-38
4.315444 1.079847 -12.873043 1.880790849211783e-38
4.027825 0.496971 -11.863470 1.880790849211783e-38
3.587032 -0.430151 -10.257645 1.880790849211783e-38
3.415706 -0.807345 -9.604325 1.880790849211783e-38
4.254568 1.079882 -12.873103 1.880790849211783e-38
3.970912 0.496981 -11.863487 1.880790849211783e-38
3.536190 -0.430146 -10.257655 1.880790849211783e-38
3.367221 -0.807326 -9.604357 1.880790849211783e-38
4.193869 1.079924 -12.873174 1.880790849211783e-38
3.914159 0.496985 -11.863495 1.880790849211783e-38
3.485498 -0.430142 -10.257661 1.880790849211783e-38
3.318889 -0.807304 -9.604396 1.880790849211783e-38
4.133332 1.079950 -12.873221 1.880790849211783e-38
3.857571 0.496995 -11.863512 1.880790849211783e-38
3.434962 -0.430134 -10.257676 1.880790849211783e-38
3.270700 -0.807287 -9.604426 1.880790849211783e-38
4.072958 1.079984 -12.873278 1.880790849211783e-38
3.801135 0.496999 -11.863520 1.880790849211783e-38
3.384566 -0.430130 -10.257681 1.880790849211783e-38
3.222651 -0.807271 -9.604456 1.880790849211783e-38
4.012756 1.080019 -12.873339 1.880790849211783e-38
3.744860 0.497004 -11.863526 1.880790849211783e-38
3.334320 -0.430127 -10.257685 1.880790849211783e-38
3.174750 -0.807251 -9.604488 1.880790849211783e-38
3.952710 1.080053 -12.873399 1.880790849211783e-38
3.688740 0.497015 -11.863544 1.880790849211783e-38
3.284218 -0.430120 -10.257699 1.880790849211783e-38
3.126987 -0.807229 -9.604527 1.880790849211783e-38
3.892826 1.080088 -12.873459 1.880790849211783e-38
3.632770 0.497020 -11.863554 1.880790849211783e-38
3.234258 -0.430113 -10.257711 1.880790849211783e-38
3.079359 -0.807215 -9.604550 1.880790849211783e-38
3.833091 1.080115 -12.873508 1.880790849211783e-38
3.576951 0.497031 -11.863574 1.880790849211783e-38
3.184432 -0.430112 -10.257712 1.880790849211783e-38
3.031867 -0.807195 -9.604587 1.880790849211783e-38
3.773512 1.080150 -12.873569 1.880790849211783e-38
3.521274 0.497036 -11.863583 1.880790849211783e-38
3.134744 -0.430106 -10.257722 1.880790849211783e-38
2.984507 -0.807175 -9.604620 1.880790849211783e-38
3.714078 1.080177 -12.873615 1.880790849211783e-38
3.465737 0.497035 -11.863581 1.880790849211783e-38
3.085190 -0.430101 -10.257732 1.880790849211783e-38
2.937274 -0.807161 -9.604642 1.880790849211783e-38
3.654793 1.080212 -12.873674 1.880790849211783e-38
3.410346 0.497048 -11.863603 1.880790849211783e-38
3.035764 -0.430096 -10.257741 1.880790849211783e-38
2.890167 -0.807144 -9.604673 1.880790849211783e-38
3.595651 1.080240 -12.873723 1.880790849211783e-38
3.355090 0.497054 -11.863613 1.880790849211783e-38
2.986467 -0.430091 -10.257748 1.880790849211783e-38
2.843188 -0.807128 -9.604702 1.880790849211783e-38
3.536646 1.080268 -12.873772 1.880790849211783e-38
3.299967 0.497060 -11.863624 1.880790849211783e-38
2.937295 -0.430083 -10.257763 1.880790849211783e-38
2.796328 -0.807108 -9.604735 1.880790849211783e-38
3.477784 1.080296 -12.873820 1.880790849211783e-38
3.244979 0.497067 -11.863636 1.880790849211783e-38
2.888249 -0.430079 -10.257770 1.880790849211783e-38
2.749588 -0.807094 -9.604760 1.880790849211783e-38
3.419057 1.080325 -12.873871 1.880790849211783e-38
3.190120 0.497074 -11.863646 1.880790849211783e-38
2.839321 -0.430076 -10.257774 1.880790849211783e-38
2.702967 -0.807077 -9.604789 1.880790849211783e-38
3.360463 1.080354 -12.873919 1.880790849211783e-38
3.135391 0.497081 -11.863660 1.880790849211783e-38
2.790514 -0.430069 -10.257788 1.880790849211783e-38
2.656461 -0.807061 -9.604816 1.880790849211783e-38
3.302001 1.080383 -12.873970 1.880790849211783e-38
3.080783 0.497082 -11.863661 1.880790849211783e-38
2.741822 -0.430067 -10.257791 1.880790849211783e-38
2.610068 -0.807047 -9.604842 1.880790849211783e-38
3.243666 1.080405 -12.874008 1.880790849211783e-38
3.026302 0.497090 -11.863674 1.880790849211783e-38
2.693246 -0.430061 -10.257800 1.880790849211783e-38
2.563787 -0.807033 -9.604864 1.880790849211783e-38
3.185457 1.080434 -12.874057 1.880790849211783e-38
2.971941 0.497098 -11.863690 1.880790849211783e-38
2.644779 -0.430060 -10.257803 1.880790849211783e-38
2.517613 -0.807017 -9.604896 1.880790849211783e-38
3.127369 1.080457 -12.874099 1.880790849211783e-38
2.917693 0.497100 -11.863693 1.880790849211783e-38
2.596423 -0.430055 -10.257812 1.880790849211783e-38
2.471546 -0.807001 -9.604920 1.880790849211783e-38
3.069405 1.080487 -12.874149 1.880790849211783e-38
2.863562 0.497103 -11.863696 1.880790849211783e-38
2.548175 -0.430050 -10.257820 1.880790849211783e-38
2.425583 -0.806987 -9.604946 1.880790849211783e-38
3.011556 1.080510 -12.874190 1.880790849211783e-38
2.809547 0.497112 -11.863715 1.880790849211783e-38
2.500030 -0.430046 -10.257827 1.880790849211783e-38
2.379721 -0.806974 -9.604968 1.880790849211783e-38
2.953824 1.080534 -12.874233 1.880790849211783e-38
2.755639 0.497115 -11.863718 1.880790849211783e-38
2.451989 -0.430042 -10.257833 1.880790849211783e-38
2.333960 -0.806962 -9.604989 1.880790849211783e-38
2.896197 1.080550 -12.874258 1.880790849211783e-38
2.701838 0.497118 -11.863727 1.880790849211783e-38
2.404046 -0.430039 -10.257838 1.880790849211783e-38
2.288294 -0.806947 -9.605014 1.880790849211783e-38
2.838693 1.080582 -12.874317 1.880790849211783e-38
2.648148 0.497128 -11.863741 1.880790849211783e-38
2.356204 -0.430037 -10.257842 1.880790849211783e-38
2.242726 -0.806934 -9.605039 1.880790849211783e-38
2.781292 1.080607 -12.874358 1.880790849211783e-38
2.594559 0.497133 -11.863750 1.880790849211783e-38
2.308459 -0.430030 -10.257854 1.880790849211783e-38
2.197252 -0.806921 -9.605059 1.880790849211783e-38
2.723996 1.080625 -12.874388 1.880790849211783e-38
2.541070 0.497131 -11.863748 1.880790849211783e-38
2.260807 -0.430029 -10.257857 1.880790849211783e-38
2.151868 -0.806910 -9.605078 1.880790849211783e-38
2.666807 1.080651 -12.874434 1.880790849211783e-38
2.487684 0.497142 -11.863766 1.880790849211783e-38
2.213249 -0.430024 -10.257867 1.880790849211783e-38
2.106575 -0.806896 -9.605103 1.880790849211783e-38
2.609716 1.080670 -12.874468 1.880790849211783e-38
1.683081 0.343716 -8.202330 1.880790849211783e-38
2.165780 -0.430019 -10.257874 1.880790849211783e-38
2.061368 -0.806884 -9.605124 1.880790849211783e-38
2.552724 1.080689 -12.874499 1.880790849211783e-38
1.640773 0.342562 -8.174790 1.880790849211783e-38
2.118397 -0.430019 -10.257874 1.880790849211783e-38
2.016248 -0.806872 -9.605145 1.880790849211783e-38
1.593054 0.689802 -8.217642 1.880790849211783e-38
1.598821 0.341421 -8.147482 1.880790849211783e-38
2.071101 -0.430015 -10.257879 1.880790849211783e-38
1.971209 -0.806862 -9.605162 1.880790849211783e-38
1.556800 0.689819 -8.217671 1.880790849211783e-38
1.557219 0.340290 -8.120399 1.880790849211783e-38
1.701006 -0.361410 -8.621386 1.880790849211783e-38
1.926252 -0.806849 -9.605184 1.880790849211783e-38
1.520601 0.689828 -8.217686 1.880790849211783e-38
1.515959 0.339165 -8.093542 1.880790849211783e-38
1.655385 -0.360101 -8.590215 1.880790849211783e-38
1.881373 -0.806837 -9.605205 1.880790849211783e-38
1.484462 0.689841 -8.217710 1.880790849211783e-38
1.475039 0.338050 -8.066908 1.880790849211783e-38
1.610171 -0.358804 -8.559322 1.880790849211783e-38
1.688929 -0.741969 -8.833049 1.880790849211783e-38
1.448379 0.689855 -8.217734 1.880790849211783e-38
1.434452 0.336947 -8.040485 1.880790849211783e-38
1.565355 -0.357515 -8.528701 1.880790849211783e-38
1.641609 -0.739170 -8.799886 1.880790849211783e-38
1.412350 0.689865 -8.217751 1.880790849211783e-38
1.394192 0.335850 -8.014277 1.880790849211783e-38
1.520931 -0.356242 -8.498350 1.880790849211783e-38
1.594722 -0.736402 -8.767030 1.880790849211783e-38
1.376374 0.689879 -8.217775 1.880790849211783e-38
1.354253 0.334766 -7.988279 1.880790849211783e-38
1.476889 -0.354976 -8.468258 1.880790849211783e-38
1.548257 -0.733651 -8.734466 1.880790849211783e-38
1.340449 0.689890 -8.217793 1.880790849211783e-38
1.314630 0.333687 -7.962487 1.880790849211783e-38
1.433226 -0.353722 -8.438427 1.880790849211783e-38
1.502208 -0.730931 -8.702195 1.880790849211783e-38
1.304574 0.689901 -8.217813 1.880790849211783e-38
1.275320 0.332617 -7.936898 1.880790849211783e-38
1.389934 -0.352483 -8.408850 1.880790849211783e-38
1.456568 -0.728237 -8.670214 1.880790849211783e-38
1.268747 0.689907 -8.217824 1.880790849211783e-38
1.236315 0.331551 -7.911510 1.880790849211783e-38
1.347006 -0.351251 -8.379519 1.880790849211783e-38
1.411330 -0.725567 -8.638514 1.880790849211783e-38
1.232968 0.689918 -8.217843 1.880790849211783e-38
1.197610 0.330502 -7.886313 1.880790849211783e-38
1.304437 -0.350029 -8.350432 1.880790849211783e-38
1.366484 -0.722913 -8.607082 1.880790849211783e-38
1.197234 0.689930 -8.217865 1.880790849211783e-38
1.159200 0.329456 -7.861308 1.880790849211783e-38
1.262218 -0.348819 -8.321589 1.880790849211783e-38
1.322024 -0.720288 -8.575927 1.880790849211783e-38
1.161546 0.689943 -8.217885 1.880790849211783e-38
1.121084 0.328416 -7.836499 1.880790849211783e-38
1.220347 -0.347614 -8.292980 1.880790849211783e-38
1.277947 -0.717687 -8.545041 1.880790849211783e-38
1.125900 0.689950 -8.217899 1.880790849211783e-38
1.083254 0.327387 -7.811873 1.880790849211783e-38
1.178816 -0.346425 -8.264606 1.880790849211783e-38
1.234244 -0.715105 -8.514414 1.880790849211783e-38
1.090296 0.689959 -8.217913 1.880790849211783e-38
1.045706 0.326363 -7.787433 1.880790849211783e-38
1.137620 -0.345241 -8.236458 1.880790849211783e-38
1.190908 -0.712547 -8.484048 1.880790849211783e-38
1.054732 0.689968 -8.217929 1.880790849211783e-38
1.008435 0.325350 -7.763170 1.880790849211783e-38
1.096754 -0.344071 -8.208538 1.880790849211783e-38
1.147934 -0.710011 -8.453934 1.880790849211783e-38
1.019208 0.689977 -8.217946 1.880790849211783e-38
0.971438 0.324341 -7.739088 1.880790849211783e-38
1.056210 -0.342907 -8.180837 1.880790849211783e-38
1.105314 -0.707497 -8.424068 1.880790849211783e-38
0.983721 0.689987 -8.217961 1.880790849211783e-38
0.934710 0.323343 -7.715178 1.880790849211783e-38
1.015986 -0.341753 -8.153355 1.880790849211783e-38
1.063043 -0.704997 -8.394444 1.880790849211783e-38
0.948270 0.689992 -8.217971 1.880790849211783e-38
0.898245 0.322349 -7.691442 1.880790849211783e-38
0.976074 -0.340608 -8.126086 1.880790849211783e-38
1.021116 -0.702527 -8.365068 1.880790849211783e-38
0.912854 0.689998 -8.217980 1.880790849211783e-38
0.862041 0.321363 -7.667875 1.880790849211783e-38
0.936470 -0.339473 -8.099028 1.880790849211783e-38
0.979524 -0.700070 -8.335920 1.880790849211783e-38
0.877472 0.690009 -8.217999 1.880790849211783e-38
0.826092 0.320384 -7.644475 1.880790849211783e-38
0.897168 -0.338347 -8.072177 1.880790849211783e-38
0.938265 -0.697634 -8.307008 1.880790849211783e-38
0.842122 0.690015 -8.218011 1.880790849211783e-38
0.790396 0.319412 -7.621238 1.880790849211783e-38
0.858164 -0.337226 -8.045527 1.880790849211783e-38
0.897332 -0.695219 -8.278326 1.880790849211783e-38
0.806802 0.690023 -8.218024 1.880790849211783e-38
0.754947 0.318443 -7.598165 1.880790849211783e-38
0.819451 -0.336117 -8.019076 1.880790849211783e-38
0.856717 -0.692824 -8.249866 1.880790849211783e-38
0.771512 0.690026 -8.218030 1.880790849211783e-38
0.719743 0.317485 -7.575248 1.880790849211783e-38
0.781028 -0.335014 -7.992826 1.880790849211783e-38
0.816420 -0.690449 -8.221630 1.880790849211783e-38
0.736251 0.690034 -8.218044 1.880790849211783e-38
0.686602 0.317376 -7.572581 1.880790849211783e-38
0.742888 -0.333924 -7.966769 1.880790849211783e-38
0.776432 -0.688093 -8.193611 1.880790849211783e-38
0.701017 0.690042 -8.218060 1.880790849211783e-38
0.653739 0.317375 -7.572578 1.880790849211783e-38
0.705028 -0.332838 -7.940902 1.880790849211783e-38
0.736749 -0.685749 -8.165803 1.880790849211783e-38
0.665808 0.690047 -8.218065 1.880790849211783e-38
0.620901 0.317379 -7.572585 1.880790849211783e-38
0.667441 -0.331760 -7.915221 1.880790849211783e-38
0.697365 -0.683428 -8.138207 1.880790849211783e-38
0.630624 0.690052 -8.218074 1.880790849211783e-38
0.588087 0.317378 -7.572586 1.880790849211783e-38
0.630125 -0.330691 -7.889727 1.880790849211783e-38
0.658277 -0.681126 -8.110817 1.880790849211783e-38
0.595464 0.690057 -8.218083 1.880790849211783e-38
0.555295 0.317379 -7.572585 1.880790849211783e-38
0.593074 -0.329626 -7.864412 1.880790849211783e-38
0.619479 -0.678838 -8.083632 1.880790849211783e-38
0.560324 0.690063 -8.218095 1.880790849211783e-38
0.522524 0.317383 -7.572592 1.880790849211783e-38
0.556284 -0.328573 -7.839276 1.880790849211783e-38
0.580965 -0.676565 -8.056643 1.880790849211783e-38
0.525205 0.690064 -8.218096 1.880790849211783e-38
0.489771 0.317380 -7.572588 1.880790849211783e-38
0.519751 -0.327527 -7.814318 1.880790849211783e-38
0.542732 -0.674313 -8.029856 1.880790849211783e-38
0.490103 0.690066 -8.218101 1.880790849211783e-38
0.457036 0.317381 -7.572589 1.880790849211783e-38
0.483470 -0.326486 -7.789527 1.880790849211783e-38
0.504773 -0.672075 -8.003257 1.880790849211783e-38
0.455022 0.690074 -8.218112 1.880790849211783e-38
0.424319 0.317382 -7.572592 1.880790849211783e-38
0.447439 -0.325453 -7.764911 1.880790849211783e-38
0.467088 -0.669855 -7.976853 1.880790849211783e-38
0.419957 0.690077 -8.218119 1.880790849211783e-38
0.391619 0.317384 -7.572596 1.880790849211783e-38
0.411654 -0.324427 -7.740462 1.880790849211783e-38
0.429670 -0.667651 -7.950633 1.880790849211783e-38
0.384907 0.690080 -8.218125 1.880790849211783e-38
0.358933 0.317383 -7.572593 1.880790849211783e-38
0.376109 -0.323412 -7.716179 1.880790849211783e-38
0.392515 -0.665461 -7.924599 1.880790849211783e-38
0.349871 0.690084 -8.218131 1.880790849211783e-38
0.326260 0.317385 -7.572597 1.880790849211783e-38
0.340803 -0.322401 -7.692059 1.880790849211783e-38
0.355619 -0.663287 -7.898747 1.880790849211783e-38
0.314848 0.690084 -8.218131 1.880790849211783e-38
0.293599 0.317384 -7.572593 1.880790849211783e-38
0.305729 -0.321393 -7.668093 1.880790849211783e-38
0.318976 -0.661130 -7.873074 1.880790849211783e-38
0.279836 0.690089 -8.218139 1.880790849211783e-38
0.260950 0.317387 -7.572599 1.880790849211783e-38
0.270886 -0.320396 -7.644289 1.880790849211783e-38
0.282585 -0.658989 -7.847576 1.880790849211783e-38
0.244834 0.690090 -8.218140 1.880790849211783e-38
0.228310 0.317386 -7.572598 1.880790849211783e-38
0.236269 -0.319403 -7.620638 1.880790849211783e-38
0.246439 -0.656855 -7.822246 1.880790849211783e-38
0.209842 0.690092 -8.218143 1.880790849211783e-38
0.195679 0.317386 -7.572599 1.880790849211783e-38
0.201875 -0.318420 -7.597142 1.880790849211783e-38
0.210536 -0.654746 -7.797094 1.880790849211783e-38
0.174857 0.690093 -8.218146 1.880790849211783e-38
0.163055 0.317386 -7.572600 1.880790849211783e-38
0.167701 -0.317440 -7.573793 1.880790849211783e-38
0.174872 -0.652644 -7.772105 1.880790849211783e-38
0.139876 0.690096 -8.218151 1.880790849211783e-38
0.130435 0.317391 -7.572607 1.880790849211783e-38
0.133740 -0.316467 -7.550591 1.880790849211783e-38
0.139441 -0.650561 -7.747281 1.880790849211783e-38
0.104903 0.690099 -8.218156 1.880790849211783e-38
0.097822 0.317387 -7.572600 1.880790849211783e-38
0.099994 -0.315501 -7.527536 1.880790849211783e-38
0.104243 -0.648489 -7.722618 1.880790849211783e-38
0.069933 0.690093 -8.218145 1.880790849211783e-38
0.065213 0.317389 -7.572601 1.880790849211783e-38
0.066458 -0.314541 -7.504625 1.880790849211783e-38
0.069273 -0.646428 -7.698116 1.880790849211783e-38
0.034966 0.690097 -8.218152 1.880790849211783e-38
0.032606 0.317386 -7.572596 1.880790849211783e-38
0.033128 -0.313588 -7.481853 1.880790849211783e-38
0.034526 -0.644386 -7.673771 1.880790849211783e-38
0.000000 0.690096 -8.218151 1.880790849211783e-38
0.000000 0.317388 -7.572600 1.880790849211783e-38
0.000000 -0.312637 -7.459219 1.880790849211783e-38
0.000000 -0.642353 -7.649580 1.880790849211783e-38
-0.034966 0.690097 -8.218152 1.880790849211783e-38
-0.032606 0.317386 -7.572596 1.880790849211783e-38
-0.033198 -0.314258 -7.497852 1.880790849211783e-38
-0.034609 -0.645930 -7.692164 1.880790849211783e-38
-0.069933 0.690093 -8.218145 1.880790849211783e-38
-0.065213 0.317389 -7.572601 1.880790849211783e-38
-0.067012 -0.317162 -7.567155 1.880790849211783e-38
-0.069887 -0.652155 -7.766314 1.880790849211783e-38
-0.104903 0.690099 -8.218156 1.880790849211783e-38
-0.097822 0.317387 -7.572600 1.880790849211783e-38
-0.101458 -0.320121 -7.637756 1.880790849211783e-38
-0.105853 -0.658502 -7.841911 1.880790849211783e-38
-0.139876 0.690096 -8.218151 1.880790849211783e-38
-0.130435 0.317387 -7.572598 1.880790849211783e-38
-0.136558 -0.323136 -7.709698 1.880790849211783e-38
-0.142532 -0.664981 -7.919009 1.880790849211783e-38
-0.174857 0.690093 -8.218146 1.880790849211783e-38
-0.163055 0.317386 -7.572598 1.880790849211783e-38
-0.172333 -0.326210 -7.783023 1.880790849211783e-38
-0.179947 -0.671583 -7.997650 1.880790849211783e-38
-0.209842 0.690092 -8.218143 1.880790849211783e-38
-0.195679 0.317386 -7.572598 1.880790849211783e-38
-0.208800 -0.329344 -7.857765 1.880790849211783e-38
-0.218118 -0.678325 -8.077885 1.880790849211783e-38
-0.244834 0.690090 -8.218140 1.880790849211783e-38
-0.228310 0.317386 -7.572597 1.880790849211783e-38
-0.245984 -0.332536 -7.933976 1.880790849211783e-38
-0.257073 -0.685197 -8.159761 1.880790849211783e-38
-0.279836 0.690089 -8.218139 1.880790849211783e-38
-0.261530 0.318092 -7.589426 1.880790849211783e-38
-0.283906 -0.335796 -8.011700 1.880790849211783e-38
-0.296836 -0.692223 -8.243344 1.880790849211783e-38
-0.314847 0.690084 -8.218129 1.880790849211783e-38
-0.296932 0.320987 -7.658558 1.880790849211783e-38
-0.322590 -0.339118 -8.090987 1.880790849211783e-38
-0.337435 -0.699389 -8.328681 1.880790849211783e-38
-0.349871 0.690084 -8.218130 1.880790849211783e-38
-0.332998 0.323943 -7.728983 1.880790849211783e-38
-0.362062 -0.342508 -8.171888 1.880790849211783e-38
-0.378899 -0.706709 -8.415833 1.880790849211783e-38
-0.384907 0.690080 -8.218123 1.880790849211783e-38
-0.369747 0.326945 -7.800747 1.880790849211783e-38
-0.402347 -0.345973 -8.254457 1.880790849211783e-38
-0.421256 -0.714188 -8.504867 1.880790849211783e-38
-0.419957 0.690077 -8.218118 1.880790849211783e-38
-0.407200 0.330012 -7.873883 1.880790849211783e-38
-0.443472 -0.349503 -8.338746 1.880790849211783e-38
-0.464539 -0.721833 -8.595844 1.880790849211783e-38
-0.455022 0.690074 -8.218112 1.880790849211783e-38
-0.445379 0.333135 -7.948437 1.880790849211783e-38
-0.485465 -0.353111 -8.424814 1.880790849211783e-38
-0.508779 -0.729643 -8.688833 1.880790849211783e-38
-0.490104 0.690071 -8.218107 1.880790849211783e-38
-0.484308 0.336320 -8.024456 1.880790849211783e-38
-0.528356 -0.356798 -8.512726 1.880790849211783e-38
-0.554010 -0.737630 -8.783908 1.880790849211783e-38
-0.525205 0.690064 -8.218096 1.880790849211783e-38
-0.524011 0.339568 -8.101988 1.880790849211783e-38
-0.572178 -0.360565 -8.602544 1.880790849211783e-38
-0.600271 -0.745801 -8.881145 1.880790849211783e-38
-0.560324 0.690063 -8.218093 1.880790849211783e-38
-0.564510 0.342882 -8.181072 1.880790849211783e-38
-0.616959 -0.364411 -8.694324 1.880790849211783e-38
-0.647593 -0.754156 -8.980613 1.880790849211783e-38
-0.595463 0.690057 -8.218081 1.880790849211783e-38
-0.605832 0.346263 -8.261763 1.880790849211783e-38
-0.662735 -0.368343 -8.788145 1.880790849211783e-38
-0.696018 -0.762712 -9.082404 1.880790849211783e-38
-0.630624 0.690052 -8.218074 1.880790849211783e-38
-0.648004 0.349714 -8.344114 1.880790849211783e-38
-0.709540 -0.372368 -8.884080 1.880790849211783e-38
-0.745587 -0.771467 -9.186596 1.880790849211783e-38
-0.665808 0.690047 -8.218064 1.880790849211783e-38
-0.691054 0.353238 -8.428180 1.880790849211783e-38
-0.757413 -0.376481 -8.982200 1.880790849211783e-38
-0.796344 -0.780429 -9.293283 1.880790849211783e-38
-0.704475 0.693447 -8.258602 1.880790849211783e-38
-0.735013 0.356832 -8.514022 1.880790849211783e-38
-0.806391 -0.380691 -9.082587 1.880790849211783e-38
-0.848334 -0.789610 -9.402564 1.880790849211783e-38
-0.747184 0.700280 -8.340074 1.880790849211783e-38
-0.779911 0.360507 -8.601696 1.880790849211783e-38
-0.856517 -0.384999 -9.185326 1.880790849211783e-38
-0.901604 -0.799024 -9.514539 1.880790849211783e-38
-0.790776 0.707255 -8.423232 1.880790849211783e-38
-0.825778 0.364258 -8.691265 1.880790849211783e-38
-0.907831 -0.389405 -9.290499 1.880790849211783e-38
-0.953840 -0.806665 -9.605498 1.880790849211783e-38
-0.835283 0.714381 -8.508131 1.880790849211783e-38
-0.872651 0.368092 -8.782797 1.880790849211783e-38
-0.960381 -0.393923 -9.398205 1.880790849211783e-38
-0.997494 -0.806669 -9.605492 1.880790849211783e-38
-0.880737 0.721651 -8.594841 1.880790849211783e-38
-0.920564 0.372015 -8.876357 1.880790849211783e-38
-1.094151 -0.429964 -10.257969 1.880790849211783e-38
-1.041189 -0.806679 -9.605476 1.880790849211783e-38
-0.927166 0.729086 -8.683406 1.880790849211783e-38
-0.969552 0.376022 -8.972020 1.880790849211783e-38
-1.140104 -0.429964 -10.257968 1.880790849211783e-38
-1.084925 -0.806681 -9.605473 1.880790849211783e-38
-0.974606 0.736674 -8.773906 1.880790849211783e-38
-1.333767 0.497214 -11.863889 1.880790849211783e-38
-1.186102 -0.429965 -10.257967 1.880790849211783e-38
-1.128702 -0.806693 -9.605451 1.880790849211783e-38
-1.485650 1.081007 -12.875050 1.880790849211783e-38
-1.385525 0.497218 -11.863897 1.880790849211783e-38
-1.232147 -0.429967 -10.257964 1.880790849211783e-38
-1.172527 -0.806698 -9.605441 1.880790849211783e-38
-1.541191 1.080998 -12.875036 1.880790849211783e-38
-1.437335 0.497216 -11.863894 1.880790849211783e-38
-1.278240 -0.429969 -10.257959 1.880790849211783e-38
-1.216399 -0.806701 -9.605436 1.880790849211783e-38
-1.596787 1.080983 -12.875009 1.880790849211783e-38
-1.489197 0.497209 -11.863881 1.880790849211783e-38
-1.324383 -0.429971 -10.257956 1.880790849211783e-38
-1.260317 -0.806713 -9.605415 1.880790849211783e-38
-1.652443 1.080968 -12.874983 1.880790849211783e-38
-1.541117 0.497208 -11.863879 1.880790849211783e-38
-1.370578 -0.429975 -10.257952 1.880790849211783e-38
-1.304289 -0.806718 -9.605408 1.880790849211783e-38
-1.708160 1.080954 -12.874957 1.880790849211783e-38
-1.593096 0.497202 -11.863870 1.880790849211783e-38
-1.416829 -0.429974 -10.257950 1.880790849211783e-38
-1.348312 -0.806725 -9.605396 1.880790849211783e-38
-1.763940 1.080934 -12.874924 1.880790849211783e-38
-1.645135 0.497202 -11.863869 1.880790849211783e-38
-1.463135 -0.429979 -10.257943 1.880790849211783e-38
-1.392389 -0.806737 -9.605373 1.880790849211783e-38
-1.819788 1.080929 -12.874914 1.880790849211783e-38
-1.697236 0.497197 -11.863859 1.880790849211783e-38
-1.509498 -0.429984 -10.257935 1.880790849211783e-38
-1.436523 -0.806742 -9.605364 1.880790849211783e-38
-1.875700 1.080910 -12.874884 1.880790849211783e-38
-1.749402 0.497198 -11.863862 1.880790849211783e-38
-1.555922 -0.429985 -10.257932 1.880790849211783e-38
-1.480716 -0.806749 -9.605353 1.880790849211783e-38
-1.931687 1.080899 -12.874864 1.880790849211783e-38
-1.801637 0.497193 -11.863854 1.880790849211783e-38
-1.602412 -0.429982 -10.257937 1.880790849211783e-38
-1.524970 -0.806757 -9.605339 1.880790849211783e-38
-1.987741 1.080881 -12.874832 1.880790849211783e-38
-1.853939 0.497189 -11.863849 1.880790849211783e-38
-1.648961 -0.429985 -10.257934 1.880790849211783e-38
-1.569284 -0.806767 -9.605324 1.880790849211783e-38
-2.043869 1.080863 -12.874800 1.880790849211783e-38
-1.906310 0.497186 -11.863841 1.880790849211783e-38
-1.695575 -0.429992 -10.257918 1.880790849211783e-38
-1.613661 -0.806778 -9.605305 1.880790849211783e-38
-2.100074 1.080846 -12.874773 1.880790849211783e-38
-1.958755 0.497182 -11.863835 1.880790849211783e-38
-1.742259 -0.429991 -10.257921 1.880790849211783e-38
-1.658105 -0.806786 -9.605291 1.880790849211783e-38
-2.156358 1.080830 -12.874744 1.880790849211783e-38
-2.011275 0.497180 -11.863831 1.880790849211783e-38
-1.789011 -0.429996 -10.257913 1.880790849211783e-38
-1.702615 -0.806795 -9.605274 1.880790849211783e-38
-2.212720 1.080807 -12.874704 1.880790849211783e-38
-2.063871 0.497171 -11.863815 1.880790849211783e-38
-1.835834 -0.430001 -10.257905 1.880790849211783e-38
-1.747195 -0.806805 -9.605255 1.880790849211783e-38
-2.269168 1.080792 -12.874679 1.880790849211783e-38
-2.116547 0.497169 -11.863812 1.880790849211783e-38
-1.882732 -0.430001 -10.257903 1.880790849211783e-38
-1.791846 -0.806817 -9.605234 1.880790849211783e-38
-2.325699 1.080771 -12.874640 1.880790849211783e-38
-2.169303 0.497162 -11.863798 1.880790849211783e-38
-1.929705 -0.430007 -10.257894 1.880790849211783e-38
-1.836571 -0.806830 -9.605211 1.880790849211783e-38
-2.382317 1.080749 -12.874604 1.880790849211783e-38
-2.222145 0.497160 -11.863795 1.880790849211783e-38
-1.976756 -0.430009 -10.257890 1.880790849211783e-38
-1.881372 -0.806837 -9.605200 1.880790849211783e-38
-2.439028 1.080728 -12.874568 1.880790849211783e-38
-2.275075 0.497160 -11.863794 1.880790849211783e-38
-2.023889 -0.430012 -10.257884 1.880790849211783e-38
-1.926251 -0.806849 -9.605180 1.880790849211783e-38
-2.495828 1.080708 -12.874532 1.880790849211783e-38
-2.328090 0.497153 -11.863783 1.880790849211783e-38
-2.071101 -0.430015 -10.257878 1.880790849211783e-38
-1.971208 -0.806862 -9.605158 1.880790849211783e-38
-2.552724 1.080688 -12.874497 1.880790849211783e-38
-2.381194 0.497147 -11.863772 1.880790849211783e-38
-2.118397 -0.430019 -10.257873 1.880790849211783e-38
-2.016247 -0.806872 -9.605141 1.880790849211783e-38
-2.609716 1.080670 -12.874467 1.880790849211783e-38
-2.434392 0.497148 -11.863774 1.880790849211783e-38
-2.165780 -0.430019 -10.257874 1.880790849211783e-38
-2.061368 -0.806883 -9.605122 1.880790849211783e-38
-2.666807 1.080650 -12.874432 1.880790849211783e-38
-2.487684 0.497142 -11.863765 1.880790849211783e-38
-2.213249 -0.430024 -10.257865 1.880790849211783e-38
-2.106574 -0.806896 -9.605099 1.880790849211783e-38
-2.723996 1.080625 -12.874387 1.880790849211783e-38
-2.541070 0.497131 -11.863747 1.880790849211783e-38
-2.260807 -0.430029 -10.257856 1.880790849211783e-38
-2.151867 -0.806910 -9.605074 1.880790849211783e-38
-2.781289 1.080599 -12.874342 1.880790849211783e-38
-2.594558 0.497133 -11.863749 1.880790849211783e-38
-2.308459 -0.430030 -10.257854 1.880790849211783e-38
-2.197251 -0.806921 -9.605057 1.880790849211783e-38
-2.838692 1.080582 -12.874313 1.880790849211783e-38
-2.648148 0.497128 -11.863741 1.880790849211783e-38
-2.356204 -0.430037 -10.257842 1.880790849211783e-38
-2.242726 -0.806934 -9.605036 1.880790849211783e-38
-2.896198 1.080550 -12.874260 1.880790849211783e-38
-2.701838 0.497118 -11.863724 1.880790849211783e-38
-2.404046 -0.430039 -10.257837 1.880790849211783e-38
-2.288293 -0.806947 -9.605010 1.880790849211783e-38
-2.953823 1.080534 -12.874231 1.880790849211783e-38
-2.755639 0.497115 -11.863718 1.880790849211783e-38
-2.451989 -0.430042 -10.257833 1.880790849211783e-38
-2.333959 -0.806962 -9.604984 1.880790849211783e-38
-3.011555 1.080510 -12.874189 1.880790849211783e-38
-2.809546 0.497112 -11.863713 1.880790849211783e-38
-2.500030 -0.430046 -10.257827 1.880790849211783e-38
-2.379721 -0.806974 -9.604966 1.880790849211783e-38
-3.069405 1.080487 -12.874149 1.880790849211783e-38
-2.863562 0.497103 -11.863696 1.880790849211783e-38
-2.548174 -0.430050 -10.257819 1.880790849211783e-38
-2.425581 -0.806991 -9.604935 1.880790849211783e-38
-3.127368 1.080456 -12.874096 1.880790849211783e-38
-2.917693 0.497100 -11.863692 1.880790849211783e-38
-2.596423 -0.430055 -10.257812 1.880790849211783e-38
-2.471545 -0.807001 -9.604918 1.880790849211783e-38
-3.185457 1.080434 -12.874056 1.880790849211783e-38
-2.971940 0.497098 -11.863688 1.880790849211783e-38
-2.644778 -0.430060 -10.257801 1.880790849211783e-38
-2.517612 -0.807016 -9.604890 1.880790849211783e-38
-3.243669 1.080412 -12.874021 1.880790849211783e-38
-3.026301 0.497090 -11.863673 1.880790849211783e-38
-2.693246 -0.430061 -10.257800 1.880790849211783e-38
-2.563786 -0.807033 -9.604862 1.880790849211783e-38
-3.302001 1.080383 -12.873969 1.880790849211783e-38
-3.080783 0.497082 -11.863661 1.880790849211783e-38
-2.741821 -0.430067 -10.257789 1.880790849211783e-38
-2.610068 -0.807046 -9.604839 1.880790849211783e-38
-3.360463 1.080353 -12.873917 1.880790849211783e-38
-3.135388 0.497075 -11.863648 1.880790849211783e-38
-2.790512 -0.430074 -10.257778 1.880790849211783e-38
-2.656460 -0.807061 -9.604812 1.880790849211783e-38
-3.419057 1.080325 -12.873870 1.880790849211783e-38
-3.190120 0.497074 -11.863646 1.880790849211783e-38
-2.839321 -0.430076 -10.257774 1.880790849211783e-38
-2.702966 -0.807077 -9.604784 1.880790849211783e-38
-3.477784 1.080296 -12.873819 1.880790849211783e-38
-3.244979 0.497067 -11.863634 1.880790849211783e-38
-2.888249 -0.430079 -10.257769 1.880790849211783e-38
-2.749588 -0.807094 -9.604757 1.880790849211783e-38
-3.536646 1.080268 -12.873772 1.880790849211783e-38
-3.299966 0.497060 -11.863623 1.880790849211783e-38
-2.937295 -0.430083 -10.257762 1.880790849211783e-38
-2.796326 -0.807108 -9.604731 1.880790849211783e-38
-3.595651 1.080240 -12.873722 1.880790849211783e-38
-3.355090 0.497054 -11.863612 1.880790849211783e-38
-2.986467 -0.430091 -10.257747 1.880790849211783e-38
-2.843186 -0.807127 -9.604696 1.880790849211783e-38
-3.654789 1.080205 -12.873660 1.880790849211783e-38
-3.410345 0.497048 -11.863601 1.880790849211783e-38
-3.035764 -0.430096 -10.257740 1.880790849211783e-38
-2.890166 -0.807144 -9.604670 1.880790849211783e-38
-3.714078 1.080177 -12.873614 1.880790849211783e-38
-3.465737 0.497035 -11.863581 1.880790849211783e-38
-3.085190 -0.430101 -10.257732 1.880790849211783e-38
-2.937273 -0.807161 -9.604641 1.880790849211783e-38
-3.773511 1.080150 -12.873567 1.880790849211783e-38
-3.521273 0.497036 -11.863581 1.880790849211783e-38
-3.134744 -0.430106 -10.257722 1.880790849211783e-38
-2.984506 -0.807175 -9.604615 1.880790849211783e-38
-3.833090 1.080115 -12.873506 1.880790849211783e-38
-3.576951 0.497031 -11.863572 1.880790849211783e-38
-3.184432 -0.430112 -10.257712 1.880790849211783e-38
-3.031866 -0.807195 -9.604583 1.880790849211783e-38
-3.892826 1.080088 -12.873459 1.880790849211783e-38
-3.632770 0.497019 -11.863552 1.880790849211783e-38
-3.234257 -0.430113 -10.257710 1.880790849211783e-38
-3.079357 -0.807215 -9.604547 1.880790849211783e-38
-3.952710 1.080053 -12.873399 1.880790849211783e-38
-3.688740 0.497015 -11.863544 1.880790849211783e-38
-3.284218 -0.430120 -10.257699 1.880790849211783e-38
-3.126987 -0.807228 -9.604525 1.880790849211783e-38
-4.012756 1.080019 -12.873338 1.880790849211783e-38
-3.744859 0.497004 -11.863523 1.880790849211783e-38
-3.334320 -0.430127 -10.257684 1.880790849211783e-38
-3.174749 -0.807251 -9.604485 1.880790849211783e-38
-4.072958 1.079985 -12.873279 1.880790849211783e-38
-3.801135 0.496999 -11.863519 1.880790849211783e-38
-3.384566 -0.430130 -10.257681 1.880790849211783e-38
-3.222649 -0.807270 -9.604450 1.880790849211783e-38
-4.133331 1.079950 -12.873219 1.880790849211783e-38
-3.857571 0.496995 -11.863509 1.880790849211783e-38
-3.434960 -0.430133 -10.257671 1.880790849211783e-38
-3.270699 -0.807287 -9.604423 1.880790849211783e-38
-4.193869 1.079924 -12.873175 1.880790849211783e-38
-3.914157 0.496985 -11.863492 1.880790849211783e-38
-3.485497 -0.430142 -10.257656 1.880790849211783e-38
-3.318885 -0.807308 -9.604386 1.880790849211783e-38
-4.254567 1.079881 -12.873100 1.880790849211783e-38
-3.970912 0.496981 -11.863487 1.880790849211783e-38
-3.536187 -0.430146 -10.257648 1.880790849211783e-38
-3.367220 -0.807326 -9.604354 1.880790849211783e-38
-4.315446 1.079855 -12.873054 1.880790849211783e-38
-4.027824 0.496971 -11.863466 1.880790849211783e-38
-3.587031 -0.430150 -10.257641 1.880790849211783e-38
-3.415704 -0.807345 -9.604321 1.880790849211783e-38
-4.376493 1.079813 -12.872983 1.880790849211783e-38
-4.084907 0.496961 -11.863452 1.880790849211783e-38
-3.638029 -0.430160 -10.257626 1.880790849211783e-38
-3.464340 -0.807365 -9.604286 1.880790849211783e-38
-4.437721 1.079778 -12.872920 1.880790849211783e-38
-4.142165 0.496958 -11.863446 1.880790849211783e-38
-3.689192 -0.430161 -10.257624 1.880790849211783e-38
-3.513131 -0.807386 -9.604250 1.880790849211783e-38
-4.499132 1.079744 -12.872863 1.880790849211783e-38
-4.199590 0.496948 -11.863426 1.880790849211783e-38
-3.740509 -0.430171 -10.257606 1.880790849211783e-38
-3.562078 -0.807408 -9.604213 1.880790849211783e-38
-4.560719 1.079702 -12.872788 1.880790849211783e-38
-4.257196 0.496945 -11.863423 1.880790849211783e-38
-3.791996 -0.430173 -10.257604 1.880790849211783e-38
-3.611186 -0.807427 -9.604179 1.880790849211783e-38
-4.622499 1.079667 -12.872728 1.880790849211783e-38
-4.314973 0.496929 -11.863395 1.880790849211783e-38
-3.843647 -0.430179 -10.257591 1.880790849211783e-38
-3.660454 -0.807451 -9.604137 1.880790849211783e-38
-4.684474 1.079632 -12.872667 1.880790849211783e-38
-4.372941 0.496920 -11.863381 1.880790849211783e-38
-3.895473 -0.430186 -10.257581 1.880790849211783e-38
-3.709894 -0.807471 -9.604104 1.880790849211783e-38
-4.746634 1.079589 -12.872593 1.880790849211783e-38
-4.431095 0.496917 -11.863376 1.880790849211783e-38
-3.947466 -0.430193 -10.257568 1.880790849211783e-38
-3.759498 -0.807493 -9.604065 1.880790849211783e-38
-4.808996 1.079554 -12.872533 1.880790849211783e-38
-4.489433 0.496908 -11.863359 1.880790849211783e-38
-3.999640 -0.430196 -10.257564 1.880790849211783e-38
-3.809273 -0.807515 -9.604027 1.880790849211783e-38
-4.871551 1.079511 -12.872458 1.880790849211783e-38
-4.547962 0.496899 -11.863345 1.880790849211783e-38
-4.051989 -0.430204 -10.257551 1.880790849211783e-38
-3.859223 -0.807533 -9.603993 1.880790849211783e-38
